ply
format ascii 1.0
element vertex 254
property float x
property float y
property float z
property uchar red
property uchar green
property uchar blue
end_header
-3.747771978378296 -0.6455033421516418 7.697577953338623 169 166 158
-3.7680890560150146 -0.591370701789856 7.761855602264404 162 152 146
-4.298623085021973 1.5684717893600464 10.032819747924805 122 144 142
-3.944298505783081 1.2988553047180176 9.719200134277344 168 160 139
-3.7545135021209717 1.4713842868804932 9.797645568847656 102 122 122
-2.798893690109253 -0.7431023120880127 7.603057384490967 148 144 141
-2.661529064178467 -0.8390713930130005 7.458117485046387 146 131 123
-2.4671578407287598 -1.2341883182525635 6.950450897216797 147 134 132
-3.4405388832092285 1.3138905763626099 9.731656074523926 15 20 23
-3.343752861022949 1.0721226930618286 9.554471015930176 73 79 65
-3.32621431350708 1.1268818378448486 9.55543327331543 83 81 63
-3.42879319190979 1.3887802362442017 9.900957107543945 88 92 93
-2.718351125717163 -0.535517692565918 7.873834133148193 93 85 82
-3.4513580799102783 1.5627222061157227 10.019251823425293 146 162 156
-3.290743827819824 1.2027673721313477 9.637931823730469 132 157 154
-2.3805575370788574 -1.167424201965332 7.012877941131592 160 155 156
-3.302471399307251 1.358986735343933 9.783416748046875 144 156 146
-3.283582925796509 1.3128849267959595 9.729167938232422 18 28 29
-3.1969335079193115 1.0167452096939087 9.491334915161133 116 141 145
-3.343031406402588 1.5245347023010254 9.946266174316406 92 103 95
-2.354755401611328 -1.1676857471466064 7.023045539855957 139 138 142
-2.2189087867736816 -1.470354437828064 6.621445655822754 65 60 64
-3.311697483062744 1.487084984779358 9.89812183380127 87 97 89
-3.2840001583099365 1.4398614168167114 9.834959983825684 137 146 137
-3.1879568099975586 1.118179440498352 9.626441955566406 186 214 218
-3.1879568099975586 1.118179440498352 9.626441955566406 186 214 218
-2.4700632095336914 -0.8498606085777283 7.461756706237793 166 147 140
-3.2292585372924805 1.354973316192627 9.777873039245605 54 52 43
-2.216695547103882 -1.3958549499511719 6.72173547744751 47 53 61
-3.127315044403076 1.005095362663269 9.544243812561035 94 121 130
-2.3473265171051025 -1.0563969612121582 7.175116539001465 138 127 125
-3.1421656608581543 1.09275484085083 9.644063949584961 103 132 138
-2.213578462600708 -1.2919588088989258 6.884497165679932 138 133 129
-3.1667563915252686 1.5439811944961548 9.92401123046875 51 57 57
-2.2724380493164062 -1.0637608766555786 7.162842273712158 163 150 144
-3.0968306064605713 1.3442084789276123 9.79865837097168 153 179 175
-2.201599359512329 -1.1382931470870972 6.99901819229126 28 35 41
-2.159072160720825 -1.4134140014648438 6.867699146270752 35 40 51
-2.159072160720825 -1.4134140014648438 6.867699146270752 35 40 51
-3.0989880561828613 1.4429090023040771 9.8667573928833 169 189 189
-2.5749831199645996 -0.2718452215194702 8.218375205993652 156 147 130
-3.0561959743499756 1.4004473686218262 9.81617259979248 36 51 50
-2.5251808166503906 -0.34031787514686584 8.1139497756958 89 78 70
-3.035975217819214 1.348545789718628 9.82754898071289 175 188 178
-3.035975217819214 1.348545789718628 9.82754898071289 175 188 178
-2.139387607574463 -1.233298659324646 6.9451704025268555 101 130 140
-2.4730405807495117 -0.4953553080558777 8.035194396972656 137 129 124
-2.1039745807647705 -1.2622451782226562 6.852785587310791 19 49 67
-2.0163509845733643 -1.459273099899292 6.6151204109191895 174 166 164
-2.999066114425659 1.431290864944458 9.845952987670898 149 153 143
-2.9615509510040283 1.2930207252502441 9.725519180297852 34 44 34
-2.0143303871154785 -1.372546911239624 6.762497901916504 30 38 51
-2.5548813343048096 0.2088746875524521 8.744640350341797 80 79 77
-2.5591697692871094 0.25632575154304504 8.781103134155273 89 88 85
-1.9789166450500488 -1.2600106000900269 6.800880432128906 86 119 137
-2.7203242778778076 1.0176165103912354 9.413956642150879 90 123 132
-2.0528881549835205 -1.0650612115859985 7.112240314483643 156 142 135
-2.7414636611938477 1.088282585144043 9.536701202392578 77 107 115
-1.953319787979126 -1.3091667890548706 6.811038017272949 20 25 30
-1.9711756706237793 -1.2473373413085938 6.888195514678955 17 31 40
-2.4678566455841064 0.11284159123897552 8.638521194458008 146 136 132
-2.4678566455841064 0.11284159123897552 8.638521194458008 146 136 132
-2.0143609046936035 -1.1349895000457764 7.091867923736572 15 32 31
-1.8446062803268433 -1.5516910552978516 6.494590759277344 216 202 201
-2.2233150005340576 -0.5773734450340271 7.843803405761719 177 161 150
-1.8942569494247437 -1.4094148874282837 6.6968770027160645 183 169 166
-1.9747941493988037 -1.1684695482254028 7.0002546310424805 24 32 29
-1.944331169128418 -1.219193696975708 6.952250957489014 195 180 173
-2.6467573642730713 0.9277291893959045 9.494484901428223 37 43 46
-1.9577170610427856 -1.1292121410369873 7.065174102783203 180 165 159
-2.612119674682617 0.9110087752342224 9.464646339416504 60 64 67
-2.2863407135009766 -0.09808579832315445 8.41876220703125 177 161 154
-2.0796492099761963 -0.6762686967849731 7.729345798492432 170 149 139
-2.5673813819885254 1.141818642616272 9.631353378295898 167 197 197
-2.4684855937957764 1.02176833152771 9.515228271484375 170 203 212
-1.75925612449646 -1.3236159086227417 6.785181522369385 171 171 169
-1.7358685731887817 -1.3168433904647827 6.783541202545166 227 229 226
-1.6914228200912476 -1.3371219635009766 6.699755668640137 187 179 176
-1.6657460927963257 -1.443104863166809 6.621255874633789 206 195 191
-2.0101494789123535 -0.42287132143974304 8.036441802978516 149 139 130
-2.0101494789123535 -0.42287132143974304 8.036441802978516 149 139 130
-2.2143301963806152 0.30367371439933777 8.856184959411621 153 135 124
-1.6833146810531616 -1.311481237411499 6.750721454620361 215 211 208
-2.242994785308838 0.488302618265152 9.015735626220703 92 74 64
-2.242994785308838 0.488302618265152 9.015735626220703 92 74 64
-2.7983803749084473 3.2702836990356445 11.360395431518555 196 219 217
-1.5936837196350098 -1.4785797595977783 6.54048490524292 46 53 54
-1.9643187522888184 -0.41941365599632263 8.063294410705566 170 165 157
-2.4378535747528076 1.4135645627975464 10.0100736618042 32 37 40
-1.9946459531784058 -0.2177993506193161 8.274540901184082 93 76 67
-1.5523813962936401 -1.5516561269760132 6.527714252471924 217 207 205
-2.2329342365264893 0.9965288043022156 9.47819995880127 147 174 181
-1.5065968036651611 -1.5017170906066895 6.482039928436279 104 95 93
-2.1966333389282227 1.0767768621444702 9.557844161987305 40 44 45
-1.4292476177215576 -1.7541354894638062 6.228431701660156 252 245 245
-1.4875682592391968 -1.5195034742355347 6.4989213943481445 223 211 211
-1.515905737876892 -1.4004669189453125 6.647256374359131 168 165 160
-1.5697628259658813 -1.0904079675674438 7.178023338317871 200 197 188
-1.4634885787963867 -1.3564058542251587 6.720882892608643 173 163 158
-1.2783875465393066 -2.0348410606384277 5.874858379364014 217 206 203
-1.4351303577423096 -1.456982970237732 6.633556365966797 54 57 64
-2.065457820892334 1.0784543752670288 9.567313194274902 141 138 133
-1.4746066331863403 -1.1786634922027588 6.829705715179443 190 185 182
-1.3973515033721924 -1.380935549736023 6.679381847381592 45 53 56
-1.3973515033721924 -1.380935549736023 6.679381847381592 45 53 56
-1.5061428546905518 -0.9903426170349121 7.2280592918396 144 130 122
-1.4701087474822998 -0.9819878935813904 7.239584922790527 142 135 131
-1.5017266273498535 -0.8555072546005249 7.405276298522949 151 142 133
-1.4845861196517944 -0.7972514033317566 7.4690680503845215 130 135 130
-1.4845861196517944 -0.7972514033317566 7.4690680503845215 130 135 130
-1.3418277502059937 -1.3104453086853027 6.753155708312988 222 252 254
-1.1693363189697266 -1.969811201095581 5.903890132904053 236 225 221
-1.4379606246948242 -0.9628952741622925 7.266665935516357 216 232 233
-1.490278720855713 -0.7236008048057556 7.5886945724487305 199 223 217
-1.7497905492782593 0.38431650400161743 8.930728912353516 83 71 62
-1.5594700574874878 -0.3811366558074951 8.059365272521973 101 95 90
-2.205728530883789 3.409618616104126 11.421817779541016 168 190 188
-1.1804744005203247 -1.7314848899841309 6.19343900680542 142 135 129
-1.5422022342681885 -0.23623785376548767 8.208381652832031 103 112 113
-1.5238343477249146 -0.29699578881263733 8.171900749206543 172 200 199
-1.5346474647521973 -0.14960739016532898 8.316207885742188 180 200 199
-1.5937409400939941 0.4072817862033844 8.922754287719727 155 178 172
-1.691633701324463 1.072131633758545 9.49836254119873 87 74 71
-1.6462856531143188 0.7498504519462585 9.25432014465332 51 56 55
-1.6090853214263916 0.5685606598854065 9.095272064208984 154 173 171
-1.6175029277801514 0.65285724401474 9.151850700378418 155 173 169
-1.2000117301940918 -1.2464470863342285 6.852286338806152 219 252 254
-1.6440811157226562 0.9059790372848511 9.425590515136719 155 177 175
-1.6858234405517578 1.2719146013259888 9.695551872253418 62 72 71
-1.6492300033569336 1.0274089574813843 9.506261825561523 159 178 173
-1.0239204168319702 -1.9200249910354614 5.942628383636475 255 252 246
-0.9777356386184692 -2.044201612472534 5.795446872711182 238 223 220
-0.9910184144973755 -1.878431797027588 6.031355381011963 241 226 221
-0.9239760637283325 -1.6008328199386597 6.313195705413818 201 190 186
-1.3152655363082886 4.1979498863220215 12.04973316192627 166 186 184
-0.6334885954856873 -1.9439313411712646 5.885905742645264 229 223 223
-0.8056344389915466 -0.16382917761802673 8.277390480041504 34 60 59
-0.5772942304611206 -1.6662359237670898 6.22894811630249 211 201 200
-0.7317189574241638 -0.40008676052093506 7.973485946655273 7 41 40
-0.7391192317008972 -0.08412118256092072 8.312318801879883 124 153 148
-0.5507241487503052 -1.6580573320388794 6.228790283203125 68 58 57
-0.6985948085784912 -0.3994465172290802 7.949192047119141 98 132 131
-0.9385884404182434 2.8980937004089355 10.924973487854004 116 138 135
-0.9385884404182434 2.8980937004089355 10.924973487854004 116 138 135
-0.6962865591049194 -0.19383762776851654 8.209559440612793 11 39 37
-0.6962865591049194 -0.19383762776851654 8.209559440612793 11 39 37
-0.6981518268585205 -0.1006401926279068 8.303043365478516 28 57 52
-0.6639446020126343 -0.3681373596191406 7.987044811248779 159 190 192
-0.6728438138961792 -0.14366663992404938 8.24863052368164 54 79 75
-0.6697759628295898 -0.10340400785207748 8.303423881530762 170 198 194
-0.6591234803199768 -0.21756196022033691 8.1781587600708 167 197 195
-0.6406200528144836 -0.3241220712661743 8.039267539978027 168 199 201
-0.6196019649505615 -0.40186193585395813 8.003641128540039 203 237 237
-0.734611988067627 1.4406325817108154 9.763946533203125 0 28 28
-0.6003411412239075 -0.16520285606384277 8.209606170654297 29 59 61
-0.5822221040725708 -0.07236842811107635 8.354065895080566 161 190 188
-0.5373334288597107 -0.3039604425430298 8.035598754882812 173 205 205
-0.7184953689575195 2.995023012161255 10.984709739685059 182 203 203
-0.3916738033294678 -1.7367069721221924 6.18072509765625 202 196 196
-0.5105611681938171 -0.17394794523715973 8.177923202514648 162 193 195
-0.7557263970375061 4.318056583404541 12.125737190246582 97 117 115
-0.4941283166408539 -0.3885316550731659 7.950837135314941 192 226 227
-0.4327440559864044 -0.3547961711883545 8.00340747833252 97 127 124
-0.35773977637290955 -1.0816643238067627 6.92149543762207 94 116 113
-0.42650106549263 0.03217363730072975 8.344339370727539 151 181 183
-0.39612579345703125 -0.2654580771923065 8.076766014099121 31 63 62
-0.38503310084342957 -0.3243294060230255 8.022293090820312 180 209 210
-0.36604833602905273 -0.19810082018375397 8.161404609680176 165 195 195
-0.2903551161289215 -1.4254674911499023 6.48158073425293 52 60 53
-0.2833944261074066 -1.5534896850585938 6.3676018714904785 70 82 76
-0.298665851354599 -1.028207778930664 6.902814865112305 95 117 114
-0.253799706697464 -1.8581888675689697 5.983938217163086 220 209 205
-0.33369481563568115 -0.3398136794567108 7.961601734161377 32 58 54
-0.25393685698509216 -1.3823729753494263 6.531449317932129 204 194 188
-0.2489992380142212 -1.324214220046997 6.620153427124023 192 201 200
-0.26002511382102966 -1.0435309410095215 6.953436374664307 189 188 183
-0.2952890396118164 -0.2843325734138489 7.986444473266602 166 194 195
-0.2905457317829132 -0.35519805550575256 7.923718452453613 80 99 94
-0.39142781496047974 2.622103214263916 10.733542442321777 94 115 116
-0.28455010056495667 -0.41417062282562256 7.806266784667969 194 216 216
-0.28436803817749023 -0.3707498610019684 7.862600326538086 197 219 217
-0.261039674282074 -0.8776785731315613 7.230106353759766 136 129 130
-0.262927383184433 -0.6685472130775452 7.4774346351623535 138 131 127
-0.2502577304840088 -0.8090488314628601 7.273936748504639 146 142 138
-0.23082265257835388 -1.0529717206954956 6.979515075683594 192 174 170
-0.24584852159023285 -0.6160862445831299 7.540679931640625 84 83 78
-0.25554436445236206 -0.25724372267723083 7.9856696128845215 133 127 118
-0.25706732273101807 -0.13837142288684845 8.110601425170898 111 107 102
-0.25706732273101807 -0.13837142288684845 8.110601425170898 111 107 102
-0.2463153749704361 -0.10136827826499939 8.150046348571777 119 99 88
-0.257326602935791 0.514220118522644 8.754343032836914 171 186 186
-0.229556605219841 0.2311200499534607 8.502326965332031 116 97 93
-0.17892949283123016 -1.2303799390792847 6.754367828369141 206 203 196
-0.2789308428764343 2.557040214538574 10.64435863494873 145 170 167
-0.2789308428764343 2.557040214538574 10.64435863494873 145 170 167
-0.1970997154712677 -0.5975483059883118 7.588611602783203 45 48 43
-0.1693599969148636 2.720693588256836 10.830889701843262 162 183 184
-0.05987531319260597 -1.3105175495147705 6.596438884735107 196 179 169
-0.0409470833837986 -1.344887137413025 6.558263778686523 77 69 58
-0.03896179422736168 -1.5711086988449097 6.290867328643799 94 88 88
-0.04067769646644592 -1.3197799921035767 6.582493782043457 89 76 67
-0.036405183374881744 1.0207284688949585 9.226865768432617 184 171 163
-0.02336873486638069 -1.5689854621887207 6.332597255706787 189 183 183
-0.011852363124489784 -1.6323591470718384 6.232647895812988 197 184 183
-0.019018646329641342 2.7807908058166504 10.872779846191406 175 195 193
-0.010639761574566364 -0.1749463677406311 8.002062797546387 154 136 126
-0.0075165387243032455 -1.4073190689086914 6.548191070556641 199 184 177
-0.009311730042099953 0.15956364572048187 8.375397682189941 159 139 132
-0.0028973419684916735 -1.9964878559112549 5.803537845611572 199 197 198
0.02058914303779602 0.026609262451529503 8.252583503723145 69 67 59
0.0216456800699234 -0.9979149699211121 7.002589702606201 60 57 50
0.03352554887533188 0.16891568899154663 8.382285118103027 141 121 115
0.04696302115917206 1.8940925598144531 9.998064041137695 154 151 146
0.03499015048146248 -1.3913089036941528 6.48283576965332 218 206 200
0.05227839946746826 0.7119472622871399 8.935969352722168 81 69 62
0.07827961444854736 2.0670018196105957 10.189764022827148 62 64 58
0.0895824208855629 3.6174185276031494 11.57686710357666 99 121 119
0.0895824208855629 3.6174185276031494 11.57686710357666 99 121 119
0.05070943012833595 -1.7654107809066772 6.0478010177612305 195 187 185
0.08954688906669617 2.50298810005188 10.551512718200684 71 65 57
0.11666468530893326 2.3525476455688477 10.419310569763184 134 136 128
0.14017391204833984 1.696452021598816 9.81906795501709 79 72 63
0.14524827897548676 1.449999213218689 9.587100982666016 151 137 128
0.1056101992726326 -1.5302696228027344 6.3320417404174805 189 179 177
0.19718079268932343 -0.14064311981201172 8.016457557678223 166 149 141
0.2550409138202667 2.188901901245117 10.275457382202148 147 147 141
0.22098056972026825 -0.9764236211776733 6.9317145347595215 183 180 171
0.25362834334373474 -0.3079504370689392 7.788021564483643 168 148 137
0.20139828324317932 -1.6962651014328003 6.128479957580566 180 169 165
0.3175930976867676 1.0028076171875 9.146993637084961 148 139 130
0.24955587089061737 -0.9721901416778564 6.957348346710205 104 101 95
0.3114171624183655 0.021645989269018173 8.153660774230957 72 54 44
0.3976218104362488 1.557050108909607 9.666648864746094 81 69 63
0.39167070388793945 1.1554226875305176 9.261001586914062 81 78 69
0.3864338994026184 0.9820478558540344 9.117474555969238 70 63 53
0.42969658970832825 1.9930524826049805 10.079337120056152 69 62 54
0.3165324628353119 -0.8611310720443726 7.094027996063232 57 53 47
0.5171892642974854 3.6272928714752197 11.520241737365723 70 90 88
0.5171892642974854 3.6272928714752197 11.520241737365723 70 90 88
0.4536697268486023 1.9530797004699707 10.032303810119629 130 119 113
0.5022692084312439 -0.5054068565368652 7.46303129196167 167 149 143
0.5916733145713806 0.542441725730896 8.621601104736328 158 136 124
0.6330949664115906 0.5035603046417236 8.586594581604004 79 59 48
0.6330949664115906 0.5035603046417236 8.586594581604004 79 59 48
0.6109349131584167 0.1844853311777115 8.248550415039062 176 158 146
0.7600989937782288 2.1665828227996826 10.204121589660645 44 35 28
0.895317018032074 0.7299115657806396 8.718798637390137 172 161 157
1.0764614343643188 1.320949912071228 9.311408996582031 144 137 130
1.1982165575027466 2.262413263320923 10.294631004333496 54 47 40
1.1982165575027466 2.262413263320923 10.294631004333496 54 47 40
1.2536321878433228 2.7957801818847656 10.774422645568848 43 42 37
1.1450616121292114 1.734076738357544 9.724013328552246 52 40 31
1.2960115671157837 2.841186285018921 10.796045303344727 122 118 112
1.1910459995269775 1.8735343217849731 9.853551864624023 145 148 139
